ply
format ascii 1.0
element vertex 1486
property float x
property float y
property float z
end_header
-105.9575,-36.8143,-36.7537
-105.8228,-36.8145,-36.7558
-105.7322,-36.9651,-36.9137
-105.2899,-35.9153,-35.8285
-105.1555,-35.9155,-35.8307
-105.0212,-35.9157,-35.8328
-104.2792,-33.8340,-33.6790
-104.1888,-33.9821,-33.8343
-104.6181,-35.9163,-35.8393
-104.6144,-36.3658,-36.3067
-104.4798,-36.3660,-36.3088
-104.3888,-36.5162,-36.4664
-104.2977,-36.6666,-36.6240
-104.4244,-37.5702,-37.5618
-103.4246,-34.5764,-34.4632
-103.2907,-34.5766,-34.4653
-103.2853,-35.0227,-34.9293
-103.0657,-34.7255,-34.6234
-106.7856,-48.1371,-48.5152
-106.2807,-46.8623,-47.1970
-106.0968,-46.7038,-47.0349
-105.9130,-46.5455,-46.8729
-105.5034,-45.5968,-45.8923
-105.3204,-45.4394,-45.7313
-105.0478,-44.9674,-45.2445
-104.7760,-44.4967,-44.7589
-104.5938,-44.3402,-44.5988
-104.2786,-43.7148,-43.9530
-104.1414,-43.7150,-43.9553
-103.8715,-43.2475,-43.4729
-103.6904,-43.0920,-43.3139
-103.3340,-42.3158,-42.5120
-103.0662,-41.8517,-42.0333
-102.9296,-41.8520,-42.0355
-102.7496,-41.6977,-41.8777
-102.5696,-41.5436,-41.7200
-102.2602,-40.9276,-41.0840
-102.1240,-40.9279,-41.0862
-101.9877,-40.9281,-41.0884
-101.7655,-40.6210,-40.7723
-101.6294,-40.6212,-40.7745
-101.3223,-40.0083,-40.1416
-101.1438,-39.8556,-39.9854
-100.9655,-39.7030,-39.8293
-100.7872,-39.5505,-39.6733
-100.5669,-39.2458,-39.3596
-100.3891,-39.0937,-39.2040
-100.2535,-39.0939,-39.2062
-99.9081,-38.3344,-38.4214
-99.7728,-38.3346,-38.4236
-99.5957,-38.1833,-38.2688
-99.4188,-38.0321,-38.1141
-99.2421,-37.8810,-37.9596
-99.1069,-37.8812,-37.9617
-98.9304,-37.7302,-37.8073
-98.7540,-37.5794,-37.6530
-98.5777,-37.4287,-37.4988
-98.4016,-37.2781,-37.3448
-98.2256,-37.1276,-37.1909
-98.0088,-36.8268,-36.8812
-97.8332,-36.6768,-36.7277
-97.6578,-36.5268,-36.5743
-97.4825,-36.3769,-36.4210
-97.3073,-36.2272,-36.2678
-97.1323,-36.0776,-36.1148
-96.9978,-36.0778,-36.1169
-96.8633,-36.0780,-36.1191
-96.7288,-36.0782,-36.1212
-96.5541,-35.9287,-35.9683
-96.3394,-35.6299,-35.6607
-96.1651,-35.4808,-35.5082
-95.9909,-35.3318,-35.3558
-95.8168,-35.1830,-35.2035
-95.6826,-35.1832,-35.2056
-95.5088,-35.0344,-35.0535
-95.3351,-34.8858,-34.9014
-95.1220,-34.5887,-34.5956
-94.9880,-34.5889,-34.5977
-94.8541,-34.5891,-34.5998
-94.6808,-34.4408,-34.4482
-94.5078,-34.2927,-34.2966
-94.3739,-34.2929,-34.2988
-94.2010,-34.1449,-34.1473
-94.0282,-33.9970,-33.9960
-93.8945,-33.9972,-33.9982
-93.7219,-33.8494,-33.8470
-93.5495,-33.7017,-33.6959
-93.4159,-33.7019,-33.6981
-93.2436,-33.5544,-33.5471
-93.0715,-33.4070,-33.3963
-92.8996,-33.2597,-33.2456
-92.7278,-33.1125,-33.0951
-92.5944,-33.1127,-33.0972
-92.4609,-33.1129,-33.0993
-92.2894,-32.9658,-32.9489
-92.1179,-32.8188,-32.7985
-91.9467,-32.6720,-32.6483
-91.7755,-32.5253,-32.4983
-91.6423,-32.5255,-32.5004
-91.4713,-32.3789,-32.3504
-91.3005,-32.2324,-32.2006
-91.1299,-32.0861,-32.0509
-90.9968,-32.0863,-32.0530
-90.8263,-31.9401,-31.9034
-90.6933,-31.9402,-31.9055
-90.5230,-31.7941,-31.7560
-90.3529,-31.6481,-31.6066
-90.2199,-31.6483,-31.6087
-90.0870,-31.6485,-31.6108
-89.9541,-31.6487,-31.6130
-89.7843,-31.5028,-31.4637
-89.6145,-31.3570,-31.3146
-89.4450,-31.2114,-31.1656
-89.2755,-31.0659,-31.0167
-89.1428,-31.0660,-31.0188
-89.0101,-31.0662,-31.0209
-88.8409,-30.9208,-30.8722
-88.7083,-30.9210,-30.8743
-88.5393,-30.7757,-30.7256
-88.4067,-30.7759,-30.7277
-88.2741,-30.7761,-30.7298
-88.1053,-30.6309,-30.5813
-87.9367,-30.4858,-30.4329
-87.8042,-30.4860,-30.4350
-87.6717,-30.4862,-30.4370
-87.5033,-30.3412,-30.2888
-87.3350,-30.1964,-30.1406
-87.2026,-30.1966,-30.1427
-87.0346,-30.0519,-29.9946
-86.8666,-29.9073,-29.8467
-86.7343,-29.9074,-29.8488
-86.6020,-29.9076,-29.8509
-86.4697,-29.9078,-29.8530
-86.3375,-29.9080,-29.8550
-86.1699,-29.7635,-29.7072
-86.0024,-29.6191,-29.5595
-85.8702,-29.6193,-29.5616
-85.7380,-29.6195,-29.5637
-85.5708,-29.4752,-29.4161
-85.4037,-29.3311,-29.2686
-85.2717,-29.3312,-29.2707
-85.1396,-29.3314,-29.2728
-85.0075,-29.3316,-29.2749
-84.8407,-29.1876,-29.1275
-84.6740,-29.0437,-28.9803
-84.5420,-29.0438,-28.9824
-84.4100,-29.0440,-28.9844
-84.2781,-29.0441,-28.9865
-84.1117,-28.9004,-28.8394
-83.9798,-28.9005,-28.8415
-83.8136,-28.7568,-28.6945
-83.6475,-28.6133,-28.5476
-83.4816,-28.4698,-28.4008
-83.3499,-28.4700,-28.4029
-83.2181,-28.4702,-28.4049
-83.0863,-28.4703,-28.4070
-82.9545,-28.4705,-28.4091
-82.8227,-28.4707,-28.4111
-82.6909,-28.4708,-28.4132
-82.5254,-28.3275,-28.2666
-82.4273,-28.4711,-28.4173
-82.2955,-28.4713,-28.4194
-82.1637,-28.4715,-28.4215
-81.9984,-28.3281,-28.2748
-81.8333,-28.1849,-28.1283
-81.6683,-28.0418,-27.9818
-81.5035,-27.8988,-27.8355
-81.3719,-27.8990,-27.8376
-81.2403,-27.8991,-27.8396
-81.1087,-27.8993,-27.8417
-80.9441,-27.7564,-27.6955
-80.7797,-27.6136,-27.5494
-80.6482,-27.6138,-27.5515
-80.5167,-27.6140,-27.5535
-80.3852,-27.6141,-27.5556
-80.2537,-27.6143,-27.5577
-80.0896,-27.4716,-27.4117
-79.9581,-27.4718,-27.4137
-79.7942,-27.3292,-27.2679
-79.6628,-27.3294,-27.2699
-79.4991,-27.1870,-27.1242
-79.3678,-27.1871,-27.1263
-79.2364,-27.1873,-27.1283
-79.1372,-27.3300,-27.2782
-79.0058,-27.3302,-27.2802
-78.8423,-27.1877,-27.1345
-78.6790,-27.0454,-26.9888
-78.5158,-26.9032,-26.8433
-78.3845,-26.9034,-26.8454
-78.2215,-26.7613,-26.7000
-78.0903,-26.7614,-26.7020
-77.9591,-26.7616,-26.7041
-77.8279,-26.7617,-26.7061
-77.6967,-26.7619,-26.7082
-77.5970,-26.9043,-26.8577
-77.4657,-26.9044,-26.8597
-77.2717,-26.6202,-26.5670
-77.1405,-26.6203,-26.5690
-77.0094,-26.6205,-26.5711
-76.8470,-26.4786,-26.4259
-76.7159,-26.4788,-26.4279
-76.5848,-26.4789,-26.4300
-76.4537,-26.4791,-26.4320
-76.3225,-26.4792,-26.4340
-76.1605,-26.3375,-26.2890
-76.0295,-26.3376,-26.2910
-75.8676,-26.1960,-26.1461
-75.7366,-26.1961,-26.1481
-75.6056,-26.1963,-26.1501
-75.5052,-26.3382,-26.2992
-75.3436,-26.1966,-26.1542
-75.2125,-26.1967,-26.1563
-75.0815,-26.1968,-26.1583
-74.9505,-26.1970,-26.1603
-74.8195,-26.1971,-26.1624
-74.6884,-26.1973,-26.1644
-74.5272,-26.0558,-26.0196
-74.3962,-26.0559,-26.0216
-74.2351,-25.9145,-25.8769
-74.1042,-25.9146,-25.8789
-73.9733,-25.9148,-25.8810
-73.8423,-25.9149,-25.8830
-73.7114,-25.9151,-25.8850
-73.5507,-25.7737,-25.7404
-73.3901,-25.6325,-25.5959
-73.2593,-25.6327,-25.5979
-73.1284,-25.6328,-25.6000
-72.9976,-25.6330,-25.6020
-72.8963,-25.7745,-25.7506
-72.7654,-25.7746,-25.7526
-72.6051,-25.6334,-25.6081
-72.4742,-25.6335,-25.6101
-72.3434,-25.6337,-25.6122
-72.2125,-25.6338,-25.6142
-72.0525,-25.4927,-25.4698
-71.9217,-25.4929,-25.4718
-71.7619,-25.3519,-25.3275
-71.6312,-25.3520,-25.3295
-71.5004,-25.3522,-25.3316
-71.3697,-25.3523,-25.3336
-71.2389,-25.3524,-25.3356
-71.1082,-25.3526,-25.3377
-70.9774,-25.3527,-25.3397
-70.8467,-25.3529,-25.3417
-70.7159,-25.3530,-25.3438
-70.5566,-25.2121,-25.1996
-70.3974,-25.0714,-25.0555
-70.2668,-25.0715,-25.0575
-70.1361,-25.0716,-25.0595
-70.0338,-25.2127,-25.2077
-69.9031,-25.2128,-25.2097
-69.7724,-25.2130,-25.2117
-69.6135,-25.0722,-25.0676
-69.4828,-25.0723,-25.0697
-69.3522,-25.0725,-25.0717
-69.2215,-25.0726,-25.0737
-69.0629,-24.9320,-24.9297
-68.9045,-24.7914,-24.7859
-68.7739,-24.7915,-24.7879
-68.6433,-24.7917,-24.7899
-68.5128,-24.7918,-24.7920
-68.4098,-24.9327,-24.9399
-68.2792,-24.9328,-24.9419
-68.1211,-24.7922,-24.7980
-67.9905,-24.7924,-24.8001
-67.8873,-24.9332,-24.9480
-67.7293,-24.7927,-24.8041
-67.5988,-24.7928,-24.8061
-67.4682,-24.7929,-24.8081
-67.3376,-24.7931,-24.8102
-67.2070,-24.7932,-24.8122
-67.0764,-24.7934,-24.8142
-66.9458,-24.7935,-24.8162
-66.7883,-24.6530,-24.6725
-66.6578,-24.6532,-24.6745
-66.5272,-24.6533,-24.6765
-66.3967,-24.6534,-24.6785
-66.2394,-24.5131,-24.5349
-66.1356,-24.6537,-24.6826
-66.0317,-24.7945,-24.8304
-65.8479,-24.5135,-24.5409
-65.7174,-24.5137,-24.5430
-65.5869,-24.5138,-24.5450
-65.4564,-24.5139,-24.5470
-65.3259,-24.5141,-24.5490
-65.2218,-24.6547,-24.6968
-65.0912,-24.6548,-24.6988
-64.9344,-24.5145,-24.5551
-64.8039,-24.5146,-24.5571
-64.6995,-24.6552,-24.7048
-64.5690,-24.6554,-24.7069
-64.4384,-24.6555,-24.7089
-64.3079,-24.6557,-24.7109
-64.1514,-24.5153,-24.5672
-64.0209,-24.5154,-24.5693
-63.8904,-24.5156,-24.5713
-63.7599,-24.5157,-24.5733
-63.6293,-24.5158,-24.5753
-63.4988,-24.5160,-24.5773
-63.3683,-24.5161,-24.5794
-63.2378,-24.5163,-24.5814
-63.1073,-24.5164,-24.5834
-62.9259,-24.2359,-24.2943
-62.7955,-24.2360,-24.2963
-62.6651,-24.2361,-24.2984
-62.5347,-24.2363,-24.3004
-62.4042,-24.2364,-24.3024
-62.3241,-24.5172,-24.5955
-62.1685,-24.3770,-24.4519
-62.0380,-24.3771,-24.4540
-61.9075,-24.3772,-24.4560
-61.7770,-24.3774,-24.4580
-61.6714,-24.5179,-24.6057
-61.5409,-24.5180,-24.6077
-61.3855,-24.3778,-24.4641
-61.2551,-24.3779,-24.4661
-61.1246,-24.3781,-24.4681
-60.9941,-24.3782,-24.4701
-60.8881,-24.5187,-24.6178
-60.7576,-24.5189,-24.6198
-60.6026,-24.3786,-24.4762
-60.4721,-24.3787,-24.4782
-60.3172,-24.2386,-24.3347
-60.1868,-24.2387,-24.3367
-60.0563,-24.2388,-24.3387
-59.9501,-24.3793,-24.4863
-59.8437,-24.5198,-24.6340
-59.6890,-24.3796,-24.4903
-59.5585,-24.3797,-24.4924
-59.4280,-24.3798,-24.4944
-59.2975,-24.3800,-24.4964
-59.1909,-24.5205,-24.6441
-59.0603,-24.5207,-24.6461
-58.9060,-24.3804,-24.5025
-58.7517,-24.2402,-24.3589
-58.6213,-24.2403,-24.3610
-58.4908,-24.2405,-24.3630
-58.3603,-24.2406,-24.3650
-58.2299,-24.2408,-24.3670
-58.1228,-24.3812,-24.5146
-57.9923,-24.3813,-24.5166
-57.8384,-24.2412,-24.3731
-57.7080,-24.2413,-24.3751
-57.6007,-24.3817,-24.5227
-57.4934,-24.5223,-24.6704
-57.3628,-24.5224,-24.6724
-57.2322,-24.5226,-24.6744
-57.0786,-24.3823,-24.5308
-56.9480,-24.3824,-24.5328
-56.8404,-24.5230,-24.6805
-56.6870,-24.3827,-24.5368
-56.5336,-24.2425,-24.3933
-56.4031,-24.2427,-24.3953
-56.2953,-24.3831,-24.5429
-56.1648,-24.3832,-24.5449
-56.0342,-24.3834,-24.5469
-55.8811,-24.2432,-24.4034
-55.7506,-24.2433,-24.4054
-55.6201,-24.2435,-24.4074
-55.4896,-24.2436,-24.4094
-55.3815,-24.3841,-24.5571
-55.2732,-24.5246,-24.7048
-55.1426,-24.5248,-24.7068
-55.0120,-24.5249,-24.7088
-54.8814,-24.5251,-24.7109
-54.7507,-24.5252,-24.7129
-54.6201,-24.5253,-24.7149
-54.4895,-24.5255,-24.7169
-54.3589,-24.5256,-24.7190
-54.2283,-24.5257,-24.7210
-54.1195,-24.6664,-24.8688
-53.9888,-24.6666,-24.8709
-53.8581,-24.6667,-24.8729
-53.7492,-24.8075,-25.0209
-53.5968,-24.6670,-24.8769
-53.4445,-24.5266,-24.7331
-53.3139,-24.5267,-24.7351
-53.1832,-24.5268,-24.7372
-53.0526,-24.5270,-24.7392
-52.9433,-24.6677,-24.8871
-52.8126,-24.6678,-24.8891
-52.7032,-24.8087,-25.0371
-52.5725,-24.8088,-25.0391
-52.4417,-24.8089,-25.0412
-52.3110,-24.8091,-25.0432
-52.1802,-24.8092,-25.0452
-52.0495,-24.8093,-25.0472
-51.9187,-24.8095,-25.0493
-51.7880,-24.8096,-25.0513
-51.6572,-24.8098,-25.0533
-51.5265,-24.8099,-25.0554
-51.3957,-24.8100,-25.0574
-51.2649,-24.8102,-25.0594
-51.1342,-24.8103,-25.0614
-51.0034,-24.8105,-25.0635
-50.8727,-24.8106,-25.0655
-50.7419,-24.8107,-25.0675
-50.6111,-24.8109,-25.0696
-50.4803,-24.8110,-25.0716
-50.3496,-24.8112,-25.0736
-50.2188,-24.8113,-25.0756
-50.0880,-24.8114,-25.0777
-49.9774,-24.9524,-25.2258
-49.8668,-25.0935,-25.3741
-49.7560,-25.2347,-25.5225
-49.6050,-25.0937,-25.3782
-49.4741,-25.0939,-25.3802
-49.3432,-25.0940,-25.3822
-49.2323,-25.2352,-25.5306
-49.1013,-25.2354,-25.5327
-48.9704,-25.2355,-25.5347
-48.8592,-25.3768,-25.6832
-48.7282,-25.3770,-25.6853
-48.5972,-25.3771,-25.6873
-48.4662,-25.3772,-25.6893
-48.3352,-25.3774,-25.6914
-48.2042,-25.3775,-25.6934
-48.0732,-25.3777,-25.6954
-47.9616,-25.5191,-25.8441
-47.8499,-25.6606,-25.9929
-47.7188,-25.6608,-25.9949
-47.5684,-25.5195,-25.8502
-47.4373,-25.5197,-25.8523
-47.3062,-25.5198,-25.8543
-47.1751,-25.5200,-25.8563
-47.0441,-25.5201,-25.8584
-46.9320,-25.6617,-26.0072
-46.8009,-25.6618,-26.0092
-46.6697,-25.6619,-26.0112
-46.5386,-25.6621,-26.0133
-46.4075,-25.6622,-26.0153
-46.2763,-25.6624,-26.0174
-46.1639,-25.8040,-26.1663
-46.0327,-25.8042,-26.1683
-45.9015,-25.8043,-26.1704
-45.7518,-25.6630,-26.0255
-45.6391,-25.8046,-26.1744
-45.5079,-25.8048,-26.1765
-45.4135,-26.0883,-26.4727
-45.2822,-26.0885,-26.4747
-45.1509,-26.0886,-26.4768
-45.0014,-25.9470,-26.3317
-44.8701,-25.9472,-26.3337
-44.7388,-25.9473,-26.3358
-44.6076,-25.9474,-26.3378
-44.4763,-25.9476,-26.3398
-44.3630,-26.0895,-26.4890
-44.2497,-26.2315,-26.6384
-44.1183,-26.2317,-26.6404
-43.9869,-26.2318,-26.6424
-43.8734,-26.3740,-26.7919
-43.7597,-26.5163,-26.9415
-43.6282,-26.5164,-26.9435
-43.4967,-26.5166,-26.9456
-43.3652,-26.5167,-26.9476
-43.2337,-26.5169,-26.9497
-43.1198,-26.6592,-27.0994
-43.0057,-26.8017,-27.2492
-42.8741,-26.8019,-27.2512
-42.7425,-26.8021,-27.2533
-42.6109,-26.8022,-27.2553
-42.4793,-26.8024,-27.2574
-42.3477,-26.8025,-27.2594
-42.2161,-26.8027,-27.2615
-42.1016,-26.9453,-27.4114
-41.9699,-26.9454,-27.4135
-41.8382,-26.9456,-27.4156
-41.7066,-26.9457,-27.4176
-41.5918,-27.0885,-27.5677
-41.4601,-27.0886,-27.5697
-41.3284,-27.0888,-27.5718
-41.1966,-27.0890,-27.5739
-41.0649,-27.0891,-27.5759
-40.9332,-27.0893,-27.5780
-40.8181,-27.2321,-27.7282
-40.7028,-27.3751,-27.8785
-40.5710,-27.3753,-27.8806
-40.4392,-27.3754,-27.8826
-40.3073,-27.3756,-27.8847
-40.1918,-27.5187,-28.0352
-40.0763,-27.6619,-28.1858
-39.9443,-27.6621,-28.1878
-39.8123,-27.6622,-28.1899
-39.6804,-27.6624,-28.1920
-39.5484,-27.6626,-28.1940
-39.4165,-27.6627,-28.1961
-39.2845,-27.6629,-28.1982
-39.1685,-27.8062,-28.3489
-39.0524,-27.9497,-28.4997
-38.9203,-27.9498,-28.5018
-38.7882,-27.9500,-28.5039
-38.6562,-27.9502,-28.5059
-38.5555,-28.2373,-28.8060
-38.4234,-28.2375,-28.8080
-38.2912,-28.2376,-28.8101
-38.1590,-28.2378,-28.8122
-38.0268,-28.2379,-28.8142
-37.8946,-28.2381,-28.8163
-37.8087,-28.6696,-29.2663
-37.6763,-28.6698,-29.2683
-37.5440,-28.6700,-29.2704
-37.4116,-28.6701,-29.2725
-37.2792,-28.6703,-29.2746
-37.1621,-28.8145,-29.4262
-37.0296,-28.8147,-29.4282
-36.8972,-28.8148,-29.4303
-36.7648,-28.8150,-29.4324
-36.6473,-28.9593,-29.5842
-36.5149,-28.9595,-29.5862
-36.3973,-29.1039,-29.7381
-36.2647,-29.1041,-29.7402
-36.1322,-29.1042,-29.7423
-35.9997,-29.1044,-29.7444
-35.8818,-29.2490,-29.8964
-35.7638,-29.3936,-30.0485
-35.6312,-29.3938,-30.0506
-35.4985,-29.3940,-30.0527
-35.3804,-29.5388,-30.2049
-35.2476,-29.5389,-30.2070
-35.1293,-29.6839,-30.3594
-34.9966,-29.6840,-30.3615
-34.8638,-29.6842,-30.3636
-34.7738,-30.1194,-30.8174
-34.6408,-30.1195,-30.8195
-34.5221,-30.2649,-30.9724
-34.3891,-30.2651,-30.9745
-34.2561,-30.2653,-30.9765
-34.1231,-30.2655,-30.9786
-33.9901,-30.2656,-30.9807
-33.8571,-30.2658,-30.9828
-33.7241,-30.2660,-30.9849
-33.5911,-30.2661,-30.9870
-33.4856,-30.5572,-31.2911
-33.3662,-30.7029,-31.4444
-33.2330,-30.7031,-31.4465
-33.0998,-30.7033,-31.4486
-32.9802,-30.8492,-31.6021
-32.8605,-30.9952,-31.7556
-32.7407,-31.1414,-31.9093
-32.6073,-31.1415,-31.9114
-32.4873,-31.2878,-32.0652
-32.3673,-31.4342,-32.2192
-32.2338,-31.4344,-32.2213
-32.1003,-31.4345,-32.2234
-31.9801,-31.5811,-32.3775
-31.8597,-31.7277,-32.5317
-31.7261,-31.7279,-32.5338
-31.5925,-31.7281,-32.5359
-31.4589,-31.7282,-32.5380
-31.3254,-31.7284,-32.5401
-31.2175,-32.0219,-32.8468
-31.0967,-32.1689,-33.0014
-30.9629,-32.1691,-33.0035
-30.8419,-32.3162,-33.1583
-30.7208,-32.4635,-33.3131
-30.5996,-32.6108,-33.4681
-30.4656,-32.6110,-33.4702
-30.3317,-32.6112,-33.4724
-30.2103,-32.7587,-33.6275
-30.0887,-32.9063,-33.7827
-29.9547,-32.9065,-33.7849
-29.8207,-32.9067,-33.7870
-29.6866,-32.9069,-33.7891
-29.5648,-33.0547,-33.9445
-29.4429,-33.2025,-34.1000
-29.3209,-33.3505,-34.2557
-29.1867,-33.3507,-34.2578
-29.0645,-33.4989,-34.4136
-28.9302,-33.4991,-34.4157
-28.8079,-33.6473,-34.5716
-28.6855,-33.7957,-34.7277
-28.5629,-33.9442,-34.8839
-28.4403,-34.0928,-35.0402
-28.3058,-34.0930,-35.0423
-28.1713,-34.0932,-35.0445
-28.0367,-34.0934,-35.0466
-27.9254,-34.3908,-35.3575
-27.8024,-34.5399,-35.5142
-27.6677,-34.5400,-35.5163
-27.5445,-34.6892,-35.6732
-27.4097,-34.6894,-35.6753
-27.2977,-34.9878,-35.9873
-27.1741,-35.1373,-36.1445
-27.0505,-35.2870,-36.3019
-26.9155,-35.2872,-36.3040
-26.8029,-35.5866,-36.6170
-26.6678,-35.5868,-36.6192
-26.5327,-35.5870,-36.6213
-26.3976,-35.5872,-36.6235
-26.2845,-35.8872,-36.9370
-26.1602,-36.0375,-37.0951
-26.0467,-36.3382,-37.4094
-25.9221,-36.4888,-37.5678
-25.7867,-36.4891,-37.5700
-25.6620,-36.6398,-37.7286
-25.5372,-36.7907,-37.8873
-25.4016,-36.7910,-37.8895
-25.2978,-37.2440,-38.3621
-25.1726,-37.3955,-38.5213
-25.0369,-37.3957,-38.5235
-24.9011,-37.3959,-38.5257
-24.7757,-37.5474,-38.6851
-24.6502,-37.6991,-38.8446
-24.5245,-37.8509,-39.0043
-24.3988,-38.0029,-39.1641
-24.2832,-38.3069,-39.4819
-24.1572,-38.4593,-39.6421
-24.0311,-38.6117,-39.8024
-23.8948,-38.6119,-39.8046
-23.7686,-38.7645,-39.9651
-23.6422,-38.9173,-40.1257
-23.5157,-39.0701,-40.2865
-23.3990,-39.3760,-40.6062
-23.2723,-39.5292,-40.7674
-23.1357,-39.5294,-40.7696
-22.9991,-39.5297,-40.7718
-22.9011,-40.1433,-41.4112
-22.7642,-40.1435,-41.4134
-22.6369,-40.2974,-41.5753
-22.5095,-40.4514,-41.7373
-22.4105,-41.0681,-42.3799
-22.2922,-41.3774,-42.7032
-22.1642,-41.5324,-42.8662
-22.0269,-41.5326,-42.8684
-21.8895,-41.5329,-42.8707
-21.7891,-42.1533,-43.5172
-21.6606,-42.3089,-43.6809
-21.5596,-42.9320,-44.3302
-21.4217,-42.9322,-44.3325
-21.2929,-43.0885,-44.4968
-21.1819,-43.5577,-44.9863
-21.0438,-43.5579,-44.9885
-20.9146,-43.7148,-45.1535
-20.8386,-44.8148,-46.2984
-20.6999,-44.8151,-46.3007
-20.5613,-44.8154,-46.3029
-20.4489,-45.2890,-46.7970
-20.3887,-46.7167,-48.2824
-20.2494,-46.7170,-48.2847
-20.1273,-47.0360,-48.6182
-19.9879,-47.0362,-48.6205
-19.9342,-48.6384,-50.2871
-19.7941,-48.6387,-50.2895
-19.6541,-48.6390,-50.2918
-19.0930,-40.6113,-41.9527
-19.0932,-43.2488,-44.6951
-18.9552,-43.2490,-44.6974
-18.8171,-43.2493,-44.6996
-18.5604,-40.9206,-42.2819
-18.4623,-41.6938,-43.0874
-18.3248,-41.6941,-43.0896
-18.0800,-39.5380,-40.8513
-17.9282,-39.2323,-40.5355
-17.8141,-39.6916,-41.0149
-17.6774,-39.6919,-41.0171
-17.5481,-39.8454,-41.1786
-17.4555,-40.7683,-42.1395
-17.3257,-40.9227,-42.3020
-17.0299,-37.5599,-38.8096
-16.9294,-38.3190,-39.6003
-16.7932,-38.3192,-39.6025
-16.5526,-36.0523,-37.2488
-16.5905,-39.8471,-41.1941
-16.4260,-39.2348,-40.5598
-6.9120,-57.0611,-59.2326
-6.7686,-57.0614,-59.2350
-6.6310,-57.3987,-59.5877
-6.4875,-57.3991,-59.5902
-6.3440,-57.3994,-59.5926
-6.1922,-56.8946,-59.0698
-6.0542,-57.2316,-59.4222
-5.9134,-57.4005,-59.5999
-5.7724,-57.5696,-59.7777
-5.6263,-57.4012,-59.6048
-5.4827,-57.4016,-59.6072
-5.3392,-57.4019,-59.6096
-5.1956,-57.4023,-59.6121
-5.0521,-57.4026,-59.6145
-4.9085,-57.4030,-59.6169
-4.7671,-57.5720,-59.7948
-4.6235,-57.5724,-59.7972
-4.4799,-57.5728,-59.7996
-4.3362,-57.5731,-59.8021
-4.1908,-57.4047,-59.6291
-4.0454,-57.2365,-59.4563
-3.9036,-57.4054,-59.6340
-3.7601,-57.4058,-59.6364
-3.6165,-57.4061,-59.6388
-3.4714,-57.2379,-59.4660
-3.3279,-57.2383,-59.4684
-3.1858,-57.4072,-59.6461
-3.0422,-57.4076,-59.6486
-2.8987,-57.4079,-59.6510
-2.7539,-57.2397,-59.4782
-2.6127,-57.5774,-59.8313
-2.4690,-57.5777,-59.8337
-2.3244,-57.4093,-59.6607
-2.1808,-57.4097,-59.6632
-2.0372,-57.4100,-59.6656
-1.8936,-57.4104,-59.6681
-1.7500,-57.4107,-59.6705
-1.6064,-57.4111,-59.6729
-1.4622,-57.2428,-59.5001
-1.3181,-57.0748,-59.3273
-1.1746,-57.0751,-59.3298
-1.0311,-57.0755,-59.3322
-0.8881,-57.2443,-59.5098
-0.7445,-57.2446,-59.5122
-0.6004,-56.9082,-59.1645
-0.4568,-56.7404,-58.9921
-0.3136,-56.9089,-59.1694
-0.1702,-56.9093,-59.1718
-0.0268,-56.9096,-59.1742
0.1166,-56.9099,-59.1766
0.2601,-56.9103,-59.1791
0.4035,-56.9106,-59.1815
0.5469,-56.9110,-59.1839
0.6900,-56.7432,-59.0115
0.8334,-56.7435,-59.0139
0.9772,-56.9120,-59.1912
1.1206,-56.9124,-59.1936
1.2641,-56.9127,-59.1961
1.4075,-56.9131,-59.1985
1.5503,-56.7453,-59.0261
1.6936,-56.7456,-59.0285
1.8370,-56.7460,-59.0309
1.9804,-56.7463,-59.0333
2.1247,-56.9148,-59.2106
2.2682,-56.9152,-59.2131
2.4116,-56.9155,-59.2155
2.5585,-57.4213,-59.7435
2.7021,-57.4217,-59.7460
2.8457,-57.4220,-59.7484
2.9907,-57.5912,-59.9264
3.1344,-57.5915,-59.9288
3.2781,-57.5919,-59.9312
3.4203,-57.4234,-59.7582
3.5640,-57.4238,-59.7606
3.7060,-57.2555,-59.5877
3.8496,-57.2559,-59.5901
3.9932,-57.2562,-59.5925
4.1386,-57.4252,-59.7703
4.2823,-57.4256,-59.7728
4.4259,-57.4259,-59.7752
4.5696,-57.4263,-59.7776
4.7133,-57.4266,-59.7801
4.8570,-57.4270,-59.7825
5.0006,-57.4273,-59.7849
5.1443,-57.4277,-59.7874
5.2880,-57.4280,-59.7898
5.4316,-57.4284,-59.7923
5.5753,-57.4287,-59.7947
5.7190,-57.4291,-59.7971
5.8627,-57.4294,-59.7996
6.0064,-57.4298,-59.8020
6.1501,-57.4302,-59.8044
6.2166,-52.7638,-54.9534
6.3586,-52.7642,-54.9557
6.5033,-52.9292,-55.1294
6.6453,-52.9295,-55.1318
6.8716,-57.6007,-59.9922
7.0153,-57.6011,-59.9946
7.1622,-57.7704,-60.1728
7.3061,-57.7708,-60.1752
7.4499,-57.7711,-60.1777
7.5937,-57.7715,-60.1801
7.7376,-57.7718,-60.1826
7.8814,-57.7722,-60.1850
8.0252,-57.7725,-60.1875
8.1691,-57.7729,-60.1899
8.3092,-57.6043,-60.0166
8.4493,-57.4358,-59.8434
8.5968,-57.6050,-60.0215
-104.3616,-34.5750,-34.4482
-104.2277,-34.5752,-34.4504
-104.0507,-34.4270,-34.2988
-103.9169,-34.4272,-34.3010
-103.7831,-34.4274,-34.3031
-103.1789,-32.8032,-32.6230
-103.0457,-32.8034,-32.6251
-102.8701,-32.6567,-32.4751
-103.1624,-34.1317,-34.0046
-101.7228,-29.5991,-29.3123
-101.5907,-29.5993,-29.3144
-101.7917,-30.7582,-30.5166
-101.9940,-31.9247,-31.7266
-102.6639,-34.7261,-34.6298
-102.5725,-34.8749,-34.7859
-101.9309,-33.0994,-32.9489
-102.0927,-34.1333,-34.0217
-101.9168,-33.9854,-33.8705
-100.8645,-30.7594,-30.5312
-101.1054,-32.0723,-31.8929
-100.5996,-30.7598,-30.5354
-100.4671,-30.7599,-30.5374
-100.3758,-30.9055,-30.6901
-100.2433,-30.9057,-30.6922
-99.8240,-29.8906,-29.6428
-100.6807,-33.3960,-33.2754
-100.5473,-33.3962,-33.2775
-99.5090,-30.1806,-29.9489
-100.4049,-33.8397,-33.7406
-100.2713,-33.8399,-33.7428
-127.7973,-132.5384,-135.9732
-127.6270,-132.5394,-135.9766
-127.5240,-132.7813,-136.2297
-127.2863,-132.5413,-135.9835
-127.1832,-132.7833,-136.2366
-127.0127,-132.7842,-136.2401
-126.7753,-132.5442,-135.9939
-126.6050,-132.5452,-135.9974
-126.3679,-132.3054,-135.7515
-97.5622,-28.8837,-28.6283
-95.9039,-23.3633,-22.9121
-97.5374,-29.7489,-29.5284
-97.4053,-29.7491,-29.5305
-95.5147,-23.3637,-22.9181
-96.6665,-28.0237,-27.7471
-96.5350,-28.0239,-27.7491
-96.4035,-28.0240,-27.7512
-94.6156,-21.9764,-21.4886
-95.9452,-27.3103,-27.0156
-95.8140,-27.3104,-27.0177
-95.6828,-27.3106,-27.0197
-94.3630,-22.9472,-22.5017
-95.9271,-29.1737,-28.9534
-95.7951,-29.1738,-28.9555
-125.9711,-140.9020,-144.6959
-93.3949,-21.2876,-20.7899
-93.2659,-21.2877,-20.7919
-94.8027,-27.4542,-27.1818
-94.6715,-27.4544,-27.1838
-94.5402,-27.4546,-27.1859
-123.4034,-135.2331,-138.8383
-123.2320,-135.2341,-138.8418
-93.9172,-26.6012,-26.3075
-123.2822,-136.7032,-140.3687
-93.4658,-25.8931,-25.5777
-122.2864,-134.2651,-137.8480
-122.1802,-134.5090,-138.1030
-122.0090,-134.5100,-138.1065
-93.3206,-27.3133,-27.0566
-92.6996,-25.4701,-25.1490
-92.6065,-25.6114,-25.2972
-92.4012,-25.3294,-25.0069
-92.2334,-25.1887,-24.8630
-93.0424,-28.7454,-28.5497
-92.6083,-27.5996,-27.3645
-90.6701,-20.7400,-20.2598
-119.7065,-131.6214,-135.1361
-119.4734,-131.3825,-134.8911
-119.2406,-131.1439,-134.6464
-119.0707,-131.1449,-134.6498
-118.9008,-131.1458,-134.6533
-118.7309,-131.1468,-134.6567
-118.5609,-131.1478,-134.6602
-90.3602,-23.5083,-23.1428
-90.2304,-23.5084,-23.1448
-90.3912,-24.6281,-24.3066
-117.4482,-129.4816,-132.9437
-90.2398,-25.0500,-24.7475
-90.0730,-24.9095,-24.6038
-90.1975,-25.8967,-25.6285
-89.0218,-21.8434,-21.4309
-88.8926,-21.8435,-21.4329
-90.2436,-27.6024,-27.4015
-88.6341,-21.8438,-21.4368
-89.6526,-26.3222,-26.0788
-89.5217,-26.3223,-26.0809
-89.4270,-26.4643,-26.2298
-89.2960,-26.4645,-26.2319
-88.4123,-23.5103,-23.1729
-88.3179,-23.6500,-23.3195
-86.9294,-18.6959,-18.1882
-87.7405,-22.3983,-22.0263
-87.6110,-22.3984,-22.0283
-87.4816,-22.3985,-22.0303
-89.2111,-29.7596,-29.6594
-88.1410,-26.0405,-25.8077
-88.0102,-26.0407,-25.8097
-86.8941,-22.1220,-21.7512
-86.8342,-22.3992,-22.0402
-86.8788,-23.0937,-22.7618
-86.7491,-23.0939,-22.7638
-86.7936,-23.7912,-23.4883
-86.6288,-23.6517,-23.3456
-86.4988,-23.6518,-23.3476
-86.3689,-23.6519,-23.3496
-86.2389,-23.6521,-23.3516
-85.0148,-19.2411,-18.7827
-84.9202,-19.3773,-18.9257
-84.8593,-19.6501,-19.2102
-84.7645,-19.7867,-19.3536
-84.8723,-20.7452,-20.3487
-84.7434,-20.7453,-20.3506
-87.6563,-33.1197,-33.1756
-86.6634,-29.6183,-29.5491
-86.5312,-29.6184,-29.5512
-84.1608,-20.4714,-20.0742
-86.5146,-30.6330,-30.6064
-86.3820,-30.6331,-30.6084
-86.2494,-30.6333,-30.6105
-93.8160,-62.2924,-63.4207
-93.6716,-62.2928,-63.4232
-93.5272,-62.2932,-63.4257
-93.2161,-61.6050,-62.7146
-93.1136,-61.7773,-62.8952
-92.9694,-61.7777,-62.8977
-92.6184,-60.9200,-62.0109
-92.4334,-60.7493,-61.8360
-92.2485,-60.5786,-61.6613
-92.0228,-60.2375,-61.3098
-91.7976,-59.8969,-60.9589
-91.6541,-59.8973,-60.9613
-91.5106,-59.8976,-60.9638
-91.2050,-59.2179,-60.2614
-91.0617,-59.2183,-60.2639
-90.9185,-59.2186,-60.2663
-90.7350,-59.0493,-60.0929
-90.5516,-58.8802,-59.9197
-90.3285,-58.5420,-59.5713
-90.1455,-58.3733,-59.3985
-89.9628,-58.2048,-59.2259
-89.8199,-58.2051,-59.2283
-89.6770,-58.2055,-59.2307
-89.4945,-58.0371,-59.0583
-89.3122,-57.8688,-58.8859
-89.1694,-57.8692,-58.8884
-88.9873,-57.7011,-58.7162
-88.6488,-56.8614,-57.8479
-88.5064,-56.8617,-57.8503
-88.4420,-57.1976,-58.2005
-88.2995,-57.1980,-58.2030
-88.1959,-57.3664,-58.3795
-87.9756,-57.0308,-58.0338
-87.7944,-56.8634,-57.8624
-87.6520,-56.8638,-57.8648
-87.4710,-56.6966,-57.6935
-87.2902,-56.5295,-57.5224
-87.1479,-56.5298,-57.5248
-86.9674,-56.3629,-57.3538
-86.7487,-56.0291,-57.0098
-86.6066,-56.0294,-57.0122
-86.4265,-55.8629,-56.8417
-86.2845,-55.8632,-56.8441
-86.1424,-55.8636,-56.8465
-86.0004,-55.8639,-56.8489
-85.8206,-55.6975,-56.6785
-85.6410,-55.5313,-56.5082
-85.4990,-55.5316,-56.5106
-85.2822,-55.1993,-56.1682
-85.1404,-55.1996,-56.1705
-84.9612,-55.0338,-56.0007
-84.8195,-55.0342,-56.0031
-84.6406,-54.8685,-55.8334
-84.4989,-54.8688,-55.8358
-84.3572,-54.8692,-55.8382
-84.2155,-54.8695,-55.8406
-84.0370,-54.7040,-55.6711
-83.8953,-54.7043,-55.6735
-83.7170,-54.5389,-55.5041
-83.5754,-54.5393,-55.5065
-83.4338,-54.5396,-55.5088
-83.3288,-54.7057,-55.6830
-83.1507,-54.5403,-55.5136
-82.9727,-54.3750,-55.3444
-82.7949,-54.2099,-55.1753
-82.6535,-54.2103,-55.1776
-82.5120,-54.2106,-55.1800
-82.3705,-54.2109,-55.1824
-82.1931,-54.0460,-55.0134
-82.0876,-54.2116,-55.1872
-81.9102,-54.0466,-55.0182
-81.7330,-53.8818,-54.8494
-81.5917,-53.8821,-54.8517
-81.4503,-53.8825,-54.8541
-81.3090,-53.8828,-54.8565
-81.1321,-53.7181,-54.6878
-80.9554,-53.5536,-54.5193
-80.8142,-53.5539,-54.5216
-80.6729,-53.5542,-54.5240
-80.4965,-53.3898,-54.3556
-80.3202,-53.2256,-54.1874
-80.1791,-53.2259,-54.1897
-80.0380,-53.2262,-54.1921
-79.8969,-53.2266,-54.1945
-79.7557,-53.2269,-54.1968
-79.6146,-53.2272,-54.1992
-79.4735,-53.2275,-54.2016
-79.2977,-53.0634,-54.0335
-79.1221,-52.8994,-53.8655
-78.9811,-52.8998,-53.8678
-78.8400,-52.9001,-53.8702
-78.6990,-52.9004,-53.8726
-78.5580,-52.9007,-53.8749
-78.4170,-52.9010,-53.8773
-78.2418,-52.7372,-53.7095
-78.0668,-52.5735,-53.5418
-77.9259,-52.5738,-53.5441
-77.7850,-52.5741,-53.5465
-77.6441,-52.5745,-53.5488
-77.5032,-52.5748,-53.5512
-77.3285,-52.4112,-53.3836
-77.1877,-52.4115,-53.3860
-77.0468,-52.4118,-53.3884
-76.9395,-52.5760,-53.5606
-76.7317,-52.2487,-53.2233
-76.5909,-52.2490,-53.2257
-76.4501,-52.2494,-53.2280
-76.3093,-52.2497,-53.2304
-76.1685,-52.2500,-53.2327
-75.9946,-52.0867,-53.0654
-75.8538,-52.0870,-53.0678
-75.7131,-52.0873,-53.0701
-75.5723,-52.0876,-53.0725
-75.4316,-52.0880,-53.0749
-75.2580,-51.9248,-52.9077
-75.1173,-51.9251,-52.9101
-74.9766,-51.9254,-52.9124
-74.8359,-51.9258,-52.9148
-74.6953,-51.9261,-52.9171
-74.5546,-51.9264,-52.9195
-74.4138,-51.9267,-52.9218
-74.2731,-51.9270,-52.9242
-74.1324,-51.9273,-52.9265
-73.9595,-51.7643,-52.7595
-73.8189,-51.7646,-52.7618
-73.7103,-51.9283,-52.9336
-73.5376,-51.7652,-52.7665
-73.3969,-51.7655,-52.7689
-73.2563,-51.7659,-52.7712
-73.1156,-51.7662,-52.7736
-72.9750,-51.7665,-52.7760
-72.8660,-51.9301,-52.9477
-72.7253,-51.9305,-52.9500
-72.5530,-51.7674,-52.7830
-72.3808,-51.6045,-52.6161
-72.2402,-51.6048,-52.6185
-72.0996,-51.6051,-52.6208
-71.9590,-51.6055,-52.6231
-71.8496,-51.7690,-52.7948
-71.7090,-51.7693,-52.7971
-71.5683,-51.7696,-52.7995
-71.3965,-51.6067,-52.6325
-71.2559,-51.6070,-52.6349
-71.1153,-51.6073,-52.6372
-70.9747,-51.6076,-52.6396
-70.8341,-51.6080,-52.6419
-70.6934,-51.6083,-52.6443
-70.5221,-51.4455,-52.4775
-70.3816,-51.4458,-52.4799
-70.2716,-51.6092,-52.6513
-70.1309,-51.6095,-52.6537
-69.9599,-51.4467,-52.4869
-69.7889,-51.2841,-52.3203
-69.6484,-51.2844,-52.3226
-69.5079,-51.2847,-52.3249
-69.3674,-51.2850,-52.3273
-69.2570,-51.4483,-52.4986
-69.1164,-51.4486,-52.5010
-68.9758,-51.4489,-52.5033
-68.8053,-51.2863,-52.3367
-68.6648,-51.2866,-52.3390
-68.5243,-51.2869,-52.3414
-68.3837,-51.2872,-52.3437
-68.2432,-51.2875,-52.3460
-68.1027,-51.2878,-52.3484
-67.9621,-51.2881,-52.3507
-67.8216,-51.2884,-52.3531
-67.7105,-51.4517,-52.5245
-67.5699,-51.4520,-52.5268
-67.4293,-51.4523,-52.5291
-67.2887,-51.4526,-52.5315
-67.1481,-51.4530,-52.5338
-67.0075,-51.4533,-52.5362
-66.8378,-51.2906,-52.3695
-66.6972,-51.2909,-52.3719
-66.5856,-51.4542,-52.5432
-66.4450,-51.4545,-52.5456
-66.3332,-51.6179,-52.7171
-66.1926,-51.6182,-52.7195
-66.0519,-51.6186,-52.7218
-65.8825,-51.4557,-52.5550
-65.7133,-51.2931,-52.3883
-65.5728,-51.2934,-52.3906
-65.4607,-51.4567,-52.5620
-65.3200,-51.4570,-52.5644
-65.1794,-51.4573,-52.5667
-65.0388,-51.4576,-52.5691
-64.9264,-51.6210,-52.7406
-64.7857,-51.6214,-52.7430
-64.6450,-51.6217,-52.7453
-64.5043,-51.6220,-52.7477
-64.3636,-51.6223,-52.7500
-64.2229,-51.6226,-52.7524
-64.0822,-51.6229,-52.7547
-63.9415,-51.6232,-52.7571
-63.8008,-51.6235,-52.7594
-63.6601,-51.6239,-52.7618
-63.5193,-51.6242,-52.7641
-63.3786,-51.6245,-52.7665
-63.2379,-51.6248,-52.7688
-63.0972,-51.6251,-52.7712
-62.9565,-51.6254,-52.7735
-62.8158,-51.6257,-52.7759
-62.6750,-51.6260,-52.7782
-62.5343,-51.6263,-52.7806
-62.3936,-51.6267,-52.7829
-62.2529,-51.6270,-52.7853
-62.1392,-51.7906,-52.9570
-62.0254,-51.9543,-53.1289
-61.8845,-51.9546,-53.1313
-61.7437,-51.9549,-53.1336
-61.6028,-51.9553,-53.1360
-61.4620,-51.9556,-53.1384
-61.3211,-51.9559,-53.1407
-61.1802,-51.9562,-53.1431
-61.0394,-51.9565,-53.1454
-60.8985,-51.9568,-53.1478
-60.7841,-52.1207,-53.3198
-60.6432,-52.1210,-53.3222
-60.5023,-52.1214,-53.3246
-60.3613,-52.1217,-53.3269
-60.1942,-51.9584,-53.1596
-60.0533,-51.9587,-53.1619
-59.9646,-52.2864,-53.5039
-59.8236,-52.2867,-53.5062
-59.6826,-52.2870,-53.5086
-59.5416,-52.2873,-53.5109
-59.4265,-52.4515,-53.6833
-59.2855,-52.4518,-53.6857
-59.1444,-52.4521,-53.6881
-59.0033,-52.4525,-53.6904
-58.8879,-52.6168,-53.8630
-58.7468,-52.6171,-53.8653
-58.6056,-52.6174,-53.8677
-58.4645,-52.6178,-53.8701
-58.3234,-52.6181,-53.8724
-58.2076,-52.7826,-54.0451
-58.0411,-52.6187,-53.8772
-57.8999,-52.6190,-53.8795
-57.7840,-52.7835,-54.0522
-57.6428,-52.7839,-54.0546
-57.5267,-52.9485,-54.2275
-57.3854,-52.9488,-54.2298
-57.2441,-52.9492,-54.2322
-57.1028,-52.9495,-54.2346
-56.9615,-52.9498,-54.2370
-56.8451,-53.1146,-54.4100
-56.7285,-53.2795,-54.5832
-56.5871,-53.2799,-54.5855
-56.4457,-53.2802,-54.5879
-56.3043,-53.2805,-54.5903
-56.1629,-53.2808,-54.5927
-56.0460,-53.4459,-54.7660
-55.9289,-53.6112,-54.9395
-55.7874,-53.6115,-54.9419
-55.6458,-53.6118,-54.9443
-55.5043,-53.6121,-54.9467
-55.3627,-53.6125,-54.9490
-55.2454,-53.7779,-55.1227
-55.1037,-53.7782,-55.1251
-54.9621,-53.7785,-55.1275
-54.8445,-53.9441,-55.3013
-54.7028,-53.9444,-55.3037
-54.5611,-53.9447,-55.3060
-54.4433,-54.1104,-55.4800
-54.3016,-54.1107,-55.4824
-54.1835,-54.2766,-55.6565
-54.0417,-54.2769,-55.6589
-53.9235,-54.4429,-55.8332
-53.7817,-54.4432,-55.8356
-53.6633,-54.6094,-56.0101
-53.5214,-54.6097,-56.0125
-53.3794,-54.6100,-56.0149
-53.2375,-54.6104,-56.0172
-53.1188,-54.7767,-56.1919
-52.9768,-54.7770,-56.1942
-52.8580,-54.9434,-56.3690
-52.7391,-55.1100,-56.5440
-52.6200,-55.2768,-56.7190
-52.4778,-55.2771,-56.7214
-52.3356,-55.2774,-56.7238
-52.1934,-55.2778,-56.7262
-52.0741,-55.4447,-56.9015
-51.9318,-55.4450,-56.9039
-51.8123,-55.6120,-57.0793
-51.6700,-55.6124,-57.0817
-51.5276,-55.6127,-57.0841
-51.3853,-55.6130,-57.0865
-51.2880,-55.9472,-57.4354
-51.1456,-55.9476,-57.4378
-51.0031,-55.9479,-57.4402
-50.8830,-56.1154,-57.6161
-50.7628,-56.2830,-57.7921
-50.6202,-56.2834,-57.7945
-50.4776,-56.2837,-57.7970
-50.3350,-56.2841,-57.7994
-50.2145,-56.4519,-57.9756
-50.0939,-56.6198,-58.1519
-49.9732,-56.7879,-58.3285
-49.8524,-56.9562,-58.5051
-49.7095,-56.9565,-58.5076
-49.5667,-56.9569,-58.5100
-49.4238,-56.9572,-58.5124
-49.2809,-56.9576,-58.5148
-49.1380,-56.9579,-58.5172
-49.0601,-57.4628,-59.0434
-48.9387,-57.6317,-59.2207
-48.8172,-57.8007,-59.3982
-48.6955,-57.9699,-59.5758
-48.5522,-57.9702,-59.5783
-48.4090,-57.9706,-59.5807
-48.2657,-57.9709,-59.5831
-48.1864,-58.4786,-60.1122
-48.0430,-58.4790,-60.1146
-47.8995,-58.4793,-60.1170
-47.7772,-58.6491,-60.2953
-47.6760,-58.9887,-60.6499
-47.5323,-58.9891,-60.6524
-47.4097,-59.1593,-60.8311
-47.2870,-59.3297,-61.0101
-47.1641,-59.5002,-61.1892
-47.0203,-59.5006,-61.1916
-46.9181,-59.8417,-61.5478
-46.7949,-60.0127,-61.7274
-46.6509,-60.0131,-61.7299
-46.4655,-59.6724,-61.3782
-46.3215,-59.6727,-61.3807
-46.1981,-59.8436,-61.5601
-46.1774,-60.8700,-62.6277
-46.0330,-60.8704,-62.6302
-45.8886,-60.8708,-62.6326
-45.8670,-61.9028,-63.7060
-45.7222,-61.9032,-63.7085
-45.5775,-61.9035,-63.7110
-45.4734,-62.2490,-64.0717
-45.3285,-62.2494,-64.0742
-45.1835,-62.2498,-64.0767
-45.0185,-62.0776,-63.9000
-44.8736,-62.0779,-63.9025
-44.7288,-62.0783,-63.9050
-44.7039,-63.1169,-64.9852
-44.5987,-63.4646,-65.3482
-44.4533,-63.4650,-65.3507
-44.3279,-63.6392,-65.5338
-44.3618,-65.2117,-67.1683
-44.1958,-65.0368,-66.9888
-44.1494,-65.9153,-67.9030
-44.0031,-65.9157,-67.9055
-39.9391,-31.1317,-31.7957
-40.4047,-36.4662,-37.3357
-39.7544,-31.8635,-32.5592
-39.9007,-34.3732,-35.1667
-39.7662,-34.3734,-35.1688
-40.4896,-42.1195,-43.2128
-39.2689,-32.3045,-33.0248
-39.7092,-37.5234,-38.4450
-39.5735,-37.5236,-38.4472
-38.8998,-32.5992,-33.3365
-38.9593,-34.3746,-35.1817
-38.6322,-32.5996,-33.3408
-38.4031,-31.7188,-32.4282
-38.3012,-32.0122,-32.7347
-38.1676,-32.0123,-32.7368
-37.9713,-31.4266,-32.1306
-37.9630,-32.6005,-33.3514
-37.8292,-32.6007,-33.3535
-37.6953,-32.6009,-33.3556
-37.9696,-36.4700,-37.3747
-37.8343,-36.4702,-37.3769
-38.3236,-42.4341,-43.5711
-38.1861,-42.4344,-43.5734
-37.0414,-32.7491,-33.5191
-37.0147,-33.7836,-34.5952
-36.8804,-33.7838,-34.5973
-36.7461,-33.7840,-34.5995
-36.5814,-33.4881,-34.2941
-36.4472,-33.4883,-34.2963
-36.5860,-36.1715,-37.0843
-36.7114,-38.7430,-39.7564
-36.5752,-38.7433,-39.7586
-35.9851,-34.2303,-35.0745
-35.8506,-34.2305,-35.0766
-35.7013,-34.0822,-34.9246
-35.5816,-34.2309,-35.0809
-35.7890,-37.6811,-38.6655
-35.8789,-39.9675,-41.0415
-36.0312,-42.9053,-44.0941
-35.0437,-34.2317,-35.0895
-34.9092,-34.2319,-35.0916
-35.6028,-42.7503,-43.9391
-35.4651,-42.7506,-43.9413
-34.7802,-37.0779,-38.0527
-34.6592,-37.2291,-38.2117
-34.2225,-34.0844,-34.9481
-34.0740,-33.9362,-34.7962
-35.0449,-45.5768,-46.8861
-34.3469,-39.6635,-40.7475
-34.2103,-39.6638,-40.7498
-35.0036,-49.5742,-51.0432
-34.8483,-49.4130,-50.8778
-34.7081,-49.4133,-50.8802
-34.5679,-49.4136,-50.8825
-33.6411,-40.8941,-42.0373
-33.5183,-41.0486,-42.1997
-33.7816,-45.4211,-46.7424
-33.1459,-39.9722,-41.0857
-32.9953,-39.8191,-40.9287
-32.8726,-39.9726,-41.0902
-32.6532,-39.0548,-40.1390
-32.5169,-39.0550,-40.1412
-32.5175,-40.5879,-41.7351
-32.3805,-40.5882,-41.7373
-32.9399,-48.4505,-49.9045
-31.9581,-38.9034,-39.9915
-31.8218,-38.9036,-39.9937
-32.1181,-43.8504,-45.1332
-31.8576,-42.4459,-43.6765
-32.2545,-48.6127,-50.0830
-32.1146,-48.6130,-50.0853
-31.4181,-42.1359,-43.3605
-31.2806,-42.1361,-43.3627
-31.1431,-42.1364,-43.3649
-30.9924,-41.9815,-43.2060
-30.8550,-41.9817,-43.2083
-30.6654,-41.3626,-42.5672
-30.5282,-41.3628,-42.5694
-30.3910,-41.3631,-42.5717
-30.4733,-44.0103,-45.3231
-30.3351,-44.0106,-45.3254
-29.2603,-32.6127,-33.4893
-30.0586,-44.0111,-45.3299
-29.0525,-33.3509,-34.2599
-28.9422,-33.6471,-34.5695
-28.8079,-33.6473,-34.5716
-28.8772,-36.1835,-37.2077
-28.5038,-33.2039,-34.1149
-28.3696,-33.2041,-34.1171
-28.2354,-33.2043,-34.1192
-28.3124,-35.8841,-36.9046
-28.1772,-35.8843,-36.9067
-28.2424,-38.4525,-39.5762
-28.1062,-38.4528,-39.5784
-27.9583,-38.3009,-39.4227
-28.1057,-41.9867,-43.2530
-27.9800,-42.1421,-43.4164
-27.8425,-42.1423,-43.4187
-27.6932,-41.9874,-43.2597
-27.2092,-37.3922,-38.4886
-27.0735,-37.3924,-38.4908
-26.9490,-37.5440,-38.6501
-26.8695,-38.3027,-39.4402
-26.5549,-35.8868,-36.9327
-26.7547,-40.4441,-41.6685
-26.6403,-40.7522,-41.9905
-26.3140,-38.1516,-39.2911
-26.2773,-39.5241,-40.7188
-25.9005,-36.1881,-37.2554
-25.7651,-36.1883,-37.2576
-25.6191,-36.0383,-37.1037
-25.5372,-36.7907,-37.8873
-25.6702,-40.5999,-41.8461
-25.5332,-40.6001,-41.8483
-25.3640,-40.1390,-41.3713
-25.0264,-37.2445,-38.3664
-25.0375,-39.3732,-40.5797
-24.3468,-31.2987,-32.1938
-24.7749,-39.5267,-40.7431
-24.4527,-36.7925,-37.9047
-24.2866,-36.3409,-37.4376
-24.1512,-36.3411,-37.4397
-24.0863,-37.3972,-38.5388
-23.9505,-37.3974,-38.5409
-23.5482,-33.3588,-34.3474
-23.3945,-33.0634,-34.0424
-23.2603,-33.0636,-34.0446
-23.1741,-33.8037,-34.8153
-23.0397,-33.8039,-34.8175
-6.7656,-56.8932,-59.0601
-6.6193,-56.7254,-58.8878
-6.4932,-57.7366,-59.9411
-6.3355,-56.8942,-59.0674
-6.2032,-57.5685,-59.7704
-6.0542,-57.2316,-59.4222
-5.9134,-57.4005,-59.5999
-5.7698,-57.4009,-59.6023
-5.6263,-57.4012,-59.6048
-5.4827,-57.4016,-59.6072
-5.3392,-57.4019,-59.6096
-5.1979,-57.5710,-59.7875
-5.0543,-57.5713,-59.7899
-4.9085,-57.4030,-59.6169
-4.7650,-57.4033,-59.6194
-4.6214,-57.4037,-59.6218
-4.4779,-57.4040,-59.6242
-4.3343,-57.4044,-59.6267
-4.1908,-57.4047,-59.6291
-4.0472,-57.4051,-59.6315
-3.9036,-57.4054,-59.6340
-3.7601,-57.4058,-59.6364
-3.6165,-57.4061,-59.6388
-3.4730,-57.4065,-59.6413
-3.3294,-57.4069,-59.6437
-3.1872,-57.5759,-59.8216
-3.0436,-57.5763,-59.8240
-2.8987,-57.4079,-59.6510
-2.7551,-57.4083,-59.6534
-2.6115,-57.4086,-59.6559
-2.4679,-57.4090,-59.6583
-2.3244,-57.4093,-59.6607
-2.1808,-57.4097,-59.6632
-2.0372,-57.4100,-59.6656
-1.8928,-57.2418,-59.4928
-1.7492,-57.2421,-59.4952
-1.6057,-57.2425,-59.4976
-1.4615,-57.0744,-59.3249
-1.3181,-57.0748,-59.3273
-1.1746,-57.0751,-59.3298
-1.0311,-57.0755,-59.3322
-0.8877,-57.0758,-59.3346
-0.7445,-57.2446,-59.5122
-0.6002,-56.7400,-58.9897
-0.4568,-56.7404,-58.9921
-0.3135,-56.7407,-58.9945
-0.1702,-56.9093,-59.1718
-0.0268,-56.7414,-58.9994
0.1166,-56.7418,-59.0018
0.2599,-56.7421,-59.0042
0.4035,-56.9106,-59.1815
0.5469,-56.9110,-59.1839
0.6903,-56.9113,-59.1864
0.8338,-56.9117,-59.1888
0.9772,-56.9120,-59.1912
1.1206,-56.9124,-59.1936
1.2641,-56.9127,-59.1961
1.4075,-56.9131,-59.1985
1.5509,-56.9134,-59.2009
1.6944,-56.9138,-59.2034
1.8370,-56.7460,-59.0309
1.9804,-56.7463,-59.0333
2.1238,-56.7467,-59.0358
2.2672,-56.7470,-59.0382
2.4105,-56.7474,-59.0406
2.5585,-57.4213,-59.7435
2.7021,-57.4217,-59.7460
2.8457,-57.4220,-59.7484
2.9894,-57.4224,-59.7508
3.1330,-57.4227,-59.7533
3.2767,-57.4231,-59.7557
3.4219,-57.5922,-59.9337
3.5640,-57.4238,-59.7606
3.7076,-57.4242,-59.7630
3.8513,-57.4245,-59.7655
3.9950,-57.4249,-59.7679
4.1386,-57.4252,-59.7703
4.2823,-57.4256,-59.7728
4.4259,-57.4259,-59.7752
4.5696,-57.4263,-59.7776
4.7154,-57.5954,-59.9556
4.8591,-57.5958,-59.9581
5.0028,-57.5961,-59.9605
5.1466,-57.5965,-59.9629
5.2903,-57.5968,-59.9654
5.4316,-57.4284,-59.7923
5.5729,-57.2601,-59.6193
5.7190,-57.4291,-59.7971
5.8627,-57.4294,-59.7996
6.0064,-57.4298,-59.8020
6.1501,-57.4302,-59.8044
6.2166,-52.7638,-54.9534
6.3613,-52.9289,-55.1270
6.5033,-52.9292,-55.1294
6.6482,-53.0943,-55.3032
6.8746,-57.7697,-60.1679
7.0184,-57.7701,-60.1704
7.1622,-57.7704,-60.1728
7.3061,-57.7708,-60.1752
7.4499,-57.7711,-60.1777
7.5937,-57.7715,-60.1801
7.7376,-57.7718,-60.1826
7.8814,-57.7722,-60.1850
8.0252,-57.7725,-60.1875
8.1691,-57.7729,-60.1899
8.3129,-57.7733,-60.1923
8.4568,-57.7736,-60.1948
